# .PCD v0.7 - Point Cloud Data file format
VERSION 0.7
FIELDS x y z normal_x normal_y normal_z
SIZE 4 4 4 4 4 4
TYPE F F F F F F
COUNT 1 1 1 1 1 1
WIDTH 695
HEIGHT 1
VIEWPOINT 0 0 0 1 0 0 0
POINTS 695
DATA ascii
90.000061 28.729589 0.66337222 0.99986285 -2.6655442e-05 -0.016565671
-2.3618751 18.587105 23.002289 -0.0011813584 0.00014490845 0.99999928
-3.8512762 16.270411 23.000074 -0.0056350045 5.4390515e-05 0.99998409
-2.2307763 10.794916 23.002186 -0.0012196972 -0.00024228281 0.99999923
0.2379027 34.394428 22.983065 -0.003446911 -1.9511428e-05 -0.99999404
0.094882883 28.68787 22.985094 -0.0045435261 -0.00018659039 -0.99998969
-1.1690488 28.364655 22.987881 -0.0031894282 2.9929242e-05 -0.99999493
1.2245457 5.6874123 22.978909 -0.012206311 -0.00069623673 -0.9999252
1.6364727 10.834571 22.969397 -0.046720855 -0.0018227857 -0.99890631
1.8902099 5.1939516 22.968351 -0.99922049 0.026673757 -0.029103106
1.4697584 39.966049 22.917576 -0.10952403 0.0022271622 0.99398166
1.3611441 39.464108 22.905714 -0.42728856 0.00095008232 0.90411478
1.3879797 34.165276 22.919769 -0.3414937 -0.00030807834 0.93988401
1.3704628 10.210995 22.902861 -0.42040026 0.00048954139 0.90733868
1.3764244 5.8717465 22.905436 -0.41043183 -0.00064526021 0.91189104
1.0972317 39.964325 22.788887 -0.44097593 0.00059314078 0.89751875
0.81905729 38.698082 22.619658 -0.5887844 0.00040715071 0.80829006
0.81085378 6.2804332 22.613741 -0.60026503 -0.00045129302 0.79980111
0.56993318 36.077629 22.405869 -0.7160567 0.00024874139 0.69804204
0.5904811 6.4851923 22.425634 -0.70560223 -0.00032879441 0.70860803
0.46689296 4.4596286 22.283258 -0.75963205 -0.0010581372 0.65035224
0.49272493 40.540222 22.313503 -0.76058644 0.00098861253 0.64923596
0.37438706 4.5281296 22.17247 -0.81760371 -0.00078126829 0.57578081
0.29937747 40.051247 22.051975 -0.85288453 0.00094088807 0.52209872
0.21245295 38.698898 21.906969 -0.89548498 0.00037178758 0.44509155
0.21115506 4.5250568 21.90411 -0.89383698 -0.00073755812 0.44839138
0.15482514 40.611385 21.769163 -0.92341757 0.0010924225 0.3837952
0.083953187 10.213178 21.593676 -0.95392966 -1.9610146e-05 0.3000302
0.031648066 39.806046 21.306076 -0.27469775 0.0046759471 0.9615193
0.021092903 39.312584 21.415588 0.99704897 0.0011297746 0.076759405
0.03060513 34.165428 21.363527 0.75516707 0.0070181401 0.65549481
0.0149056 16.31213 21.629236 0.99957216 -0.00018266776 0.029248092
-0.0021876167 34.205086 21.942934 -0.99998689 0.00023501206 0.0051041469
-0.0022899241 26.412895 21.975889 -0.99998826 -0.0001411055 0.0048485505
-7.560174e-05 28.729589 22.336628 -0.99986553 -1.7111361e-05 0.016398845
92.361877 26.412895 23.002289 0.0011813577 -0.00014490831 0.99999928
93.85128 28.729589 23.000074 0.0056350678 -5.4390421e-05 0.99998409
92.230774 34.205086 23.002186 0.0012196952 0.00024228328 0.99999923
89.7621 10.605574 22.983065 0.003446925 1.9509594e-05 -0.99999404
89.905121 16.31213 22.985094 0.0045435312 0.00018658671 -0.99998969
91.169052 16.635345 22.987881 0.0032411155 -3.8200054e-05 -0.99999475
88.775459 39.312584 22.978909 0.012206454 0.0006962535 -0.9999252
88.363541 34.165428 22.969397 0.046721309 0.0018227752 -0.99890631
88.109802 39.806046 22.968351 0.99922049 -0.026672689 -0.02910321
88.530258 5.0339484 22.917576 0.10952327 -0.0022271348 0.99398178
88.63887 5.5358915 22.905714 0.45588806 -0.00093309931 0.8900367
88.612022 10.834724 22.919769 0.34138691 0.00030765616 0.93992281
88.779716 40.102947 22.841396 0.38673046 0.0010615936 0.92219222
88.778763 4.5918312 22.841 0.38649204 -0.00098799157 0.92229223
88.907654 7.597486 22.786877 0.45481747 -0.00033749809 0.89058459
88.905891 37.071987 22.789017 0.4618744 0.00026692613 0.88694531
89.057144 4.5918312 22.69651 0.522147 -0.0008689026 0.85285503
89.178436 6.947412 22.621517 0.58843511 -0.00036085609 0.80854434
89.203423 40.419418 22.600941 0.60338879 0.00061615941 0.79744685
89.521843 40.511543 22.295559 0.76028395 0.00098970486 0.64959013
89.559669 5.9703221 22.253048 0.7644012 -0.00072736741 0.64474034
89.702309 4.5744929 22.048588 0.84958798 -0.00083295215 0.52744621
89.923279 31.109407 21.567768 0.96742684 1.1899583e-05 0.25315058
89.968353 5.1939516 21.306076 0.27468732 -0.00467464 0.96152222
89.978912 5.6874123 21.415588 -0.99705189 -0.0011289155 0.076722063
89.969406 10.834571 21.363527 -0.75522822 -0.0070171747 0.6554243
89.985085 28.68787 21.629236 -0.99956411 0.00019451659 0.029521551
89.98764 33.422405 21.808304 -0.99987382 -0.00016073104 0.015887681
90.002182 10.794916 21.942934 0.99998736 -0.00023198861 0.0050185225
90.002289 18.587105 21.975889 0.99998814 0.00013879356 0.0048706839
90.000061 16.270411 22.336628 0.99986285 2.6600177e-05 0.016565347
31.738953 43.736607 23.001854 -1.513669e-05 0.0007506719 0.99999976
31.901972 45.186966 22.999996 -0.00023229756 0.0052036019 0.99998635
19.792885 43.778069 23.001167 -8.3706713e-05 0.0019541152 0.99999809
70.186676 44.204266 22.981247 0.00019931297 0.0096403081 -0.99995351
58.097858 44.144867 22.982355 -0.00013063624 0.010067208 -0.99994928
58.092896 44.774471 22.986771 -3.5088528e-05 0.0077154068 -0.9999702
9.4037952 43.276619 22.978962 0.0024225037 0.96997017 0.24321175
9.4032745 43.314682 22.969109 -0.00012982497 0.1850853 0.98272246
80.59597 43.548637 22.920105 0.00054288289 0.17884745 0.98387665
80.596504 43.64336 22.898003 3.3166089e-05 0.32467067 0.94582719
17.047302 43.606319 22.910717 -1.7008539e-05 0.30051646 0.9537766
78.049751 43.869892 22.803757 0.00019441661 0.40605462 0.91384882
76.732437 43.925735 22.772736 6.3594325e-06 0.50071394 0.8656128
20.056688 43.908932 22.785931 2.5583999e-05 0.47815114 0.87827754
76.733673 44.19133 22.605928 -1.8093775e-05 0.62722105 0.77884132
18.190769 44.216232 22.59079 -4.1625295e-05 0.62725902 0.77881062
78.923958 44.596348 22.207529 0.00016713742 0.77935368 0.62658417
76.737015 44.628685 22.158764 -4.4382326e-05 0.83914149 0.54391319
11.29611 44.616085 22.184301 -0.00012636303 0.80062717 0.59916282
12.402096 44.643932 22.140896 -0.00022879861 0.84866321 0.52893353
79.19001 44.765266 21.943457 0.00014443749 0.87017888 0.49273598
73.173546 44.907883 21.591421 -0.00010264219 0.96829265 0.24981864
69.521149 44.890411 21.653051 -9.3315502e-05 0.95434767 0.29869789
10.420156 44.902611 21.631468 -0.00026223561 0.95028853 0.31137049
20.518196 44.911148 21.603956 -6.9241352e-05 0.9677372 0.25196186
8.3418713 44.910454 21.585583 -0.00043666383 0.98374766 0.17955574
80.314125 44.971329 21.289158 0.00034761633 -0.89299929 0.45005807
81.2808 44.975075 21.42347 0.0010948521 -0.99761307 0.069042481
31.855618 44.981239 21.62306 -0.00014624993 -0.99955642 0.029780924
69.55043 45.001549 21.928806 8.7819411e-05 0.99998671 0.0051537352
53.179985 45.001251 21.967659 -8.4599931e-05 0.99998832 0.0048311641
58.065186 44.999176 22.317047 -2.4563155e-05 0.99983883 0.017951462
0.50056756 45.001526 14.413548 -0.00049875752 0.99999988 0.00017321983
-2.5105016 44.999191 14.386784 -0.0030283805 0.99999464 0.001238396
0.41097915 45.000908 17.05558 -0.0011132623 0.99999923 0.00046532816
-1.1019489 44.98502 5.6424413 -0.0064421012 -0.99997437 -0.0031359282
-2.4462795 44.988461 8.1956339 -0.0044266568 -0.99998999 -0.0006855398
1.7445745 44.977093 19.364759 -0.87356257 -0.48668507 0.0051078666
1.7395387 44.967316 19.362373 -0.48965839 0.87190771 0.0034131359
0.21636108 43.909058 1.8653519 -0.88204682 0.46232495 -0.090824731
0.064852536 43.509045 5.5329499 -0.97619498 0.21689476 1.8064198e-05
0.0210394 43.276619 3.6459837 -0.25722045 0.96634406 0.0040872744
-0.00077891874 45.374401 12.56109 -0.9999907 0.0043126694 5.8323811e-05
-0.00029395288 44.610382 7.0579972 -0.99999422 0.003327199 -0.00070294889
90.000778 45.373764 10.437441 0.99998802 0.0048944256 -5.2893989e-05
89.999969 44.951794 15.26475 0.99998695 0.0050236234 0.00094729697
89.982086 44.080441 10.063758 -0.99995184 0.0097447084 0.0011456975
89.978966 43.276619 19.354015 0.25741252 0.9662925 -0.0041947011
89.93515 43.50909 17.466616 0.97607028 0.21745522 3.9947685e-05
89.916595 43.590538 3.3797748 0.96080726 0.27721214 -0.0016476078
89.90107 43.625103 20.970413 0.94812393 0.31719783 0.021131394
89.77832 43.919346 20.951065 0.88792753 0.45890746 0.031444129
89.622223 44.172916 2.0543981 0.80444384 0.59324783 -0.030448887
89.421974 44.411694 3.1025839 0.69360864 0.72035116 -0.0011143468
88.91748 44.778782 1.8772618 0.43954116 0.89550722 -0.069787696
88.603409 44.914402 16.695574 0.28245735 0.95927984 -0.00010356736
88.593445 44.91539 19.660435 0.21021411 0.97765201 0.002580025
88.260468 44.967316 3.6376264 0.48966989 0.87190115 -0.0034147578
88.255432 44.977093 3.6352406 0.87355369 -0.48670095 -0.0051094941
92.445747 44.988461 14.804558 0.0049824947 -0.9999873 0.00071126869
91.101006 44.985016 17.358572 0.0062476317 -0.9999761 0.002961494
89.58902 45.000908 5.9444199 0.0011133556 0.99999928 -0.00046547328
89.499428 45.001526 8.5864525 0.00049872679 0.99999988 -0.00017318869
92.510498 44.999191 8.6132174 0.0030283988 0.99999464 -0.0012383986
60.569439 43.974335 -0.0012696306 -7.2557174e-05 0.0032236793 0.99999481
71.537636 44.511772 -0.00054477877 -1.5870042e-05 0.00060382573 0.99999982
6.0275979 43.165611 0.018403241 8.1751081e-05 0.042171892 -0.99911034
11.07186 43.305038 0.021805825 -0.00010980046 0.088988498 -0.99603266
20.299915 43.177357 0.018431455 -0.00014395297 0.039593462 -0.9992159
80.596512 43.277233 0.021038737 7.4862146e-05 0.066817112 -0.99776524
81.196609 43.363689 0.029738348 0.00029949041 0.1884748 -0.98207802
9.4041843 43.56881 0.079894163 -0.00018789673 0.29263696 -0.95622361
9.4034233 43.633274 0.10199908 -5.3979427e-05 0.35148159 -0.93619478
57.011234 43.674923 0.11444119 -0.00011265027 0.33191016 -0.94331098
10.402155 43.877415 0.19970402 -0.00017002432 0.41522667 -0.90971798
13.267557 43.925735 0.22726329 6.389891e-06 0.49825758 -0.86702901
20.482157 43.875488 0.19996601 5.9879821e-05 0.45960075 -0.88812566
10.638371 44.18644 0.3900317 3.1281837e-05 0.62863475 -0.77770066
56.764114 44.225292 0.41687149 -0.00015196287 0.60470021 -0.79645318
13.264791 44.427586 0.60042441 3.5917146e-05 0.74411851 -0.66804755
33.87859 44.375427 0.54697651 0.00011501113 0.7055155 -0.70869452
71.882172 44.447666 0.6169607 7.1892755e-05 0.74493527 -0.66713673
82.109634 44.479858 0.65771496 0.00035615571 0.75903249 -0.65105259
13.262987 44.628685 0.84123886 4.9881943e-05 0.84030634 -0.54211193
11.631083 44.594547 0.78970706 -0.00016263187 0.77799654 -0.62826854
77.41674 44.614708 0.81376904 0.00012668515 0.79930556 -0.60092485
20.479706 44.765095 1.0589259 0.00012412903 0.89980334 -0.43629572
82.089035 44.782291 1.0855706 0.00022801435 0.90102565 -0.43376574
13.258759 44.906624 1.4018331 0.0001030772 0.96789986 -0.2513361
20.478853 44.890411 1.3469511 9.9773119e-05 0.9539873 -0.29984707
79.579849 44.902611 1.3685338 0.00026209617 0.95028263 -0.31138843
69.481812 44.911148 1.3960441 6.9189671e-05 0.9677316 -0.25198317
81.658127 44.910454 1.4144168 0.0004366707 0.98374701 -0.17955925
9.685874 44.971329 1.7108409 -0.00034749668 -0.89299923 -0.45005813
8.7192039 44.975075 1.5765281 -0.0010948475 -0.99761319 -0.069041245
58.144382 44.981239 1.3769355 0.00014623305 -0.9995563 -0.029785136
20.449566 45.001549 1.071193 -8.7819608e-05 0.99998671 -0.0051537217
36.820015 45.001251 1.0323403 8.4599909e-05 0.99998832 -0.004831153
31.934813 44.999176 0.68295044 2.4562651e-05 0.99983883 -0.017951414
92.700226 -0.00049190433 11.534098 0.002750637 -0.99999619 0.0002707133
92.510498 0.00080924516 14.386784 0.0047806702 -0.99998719 0.0016924782
89.58902 -0.00090805779 17.05558 0.0012119067 -0.99999905 0.00059922936
91.101814 0.014978333 5.6416998 0.0062264702 0.99997568 -0.0031449269
90.411858 0.018718682 7.8357768 0.0051405579 0.99998677 4.8832233e-05
88.225418 0.023164004 19.27869 0.99833518 0.052744817 -0.023341831
88.58033 0.081039131 7.7646785 0.2300259 -0.97318447 9.9882731e-05
89.383881 0.55363524 16.953636 0.68348581 -0.72996378 0.00012631661
89.422005 0.59114188 20.930603 0.70987922 -0.70354736 0.033054065
89.622139 0.82697707 20.946066 0.81388497 -0.58025181 0.029983655
89.926147 1.4367481 17.620655 0.97420454 -0.2256666 0.00011228205
89.923447 1.4369049 15.232872 0.96546489 -0.26053271 -0.00057034969
89.969131 1.6853223 3.6454628 0.98019153 -0.19805157 -0.00021664405
89.978966 1.723382 3.6459837 0.22672759 -0.97394937 0.0041485312
89.982094 0.91883051 12.937017 -0.99995184 -0.009748104 -0.0011508329
90.000771 -0.37501618 12.564281 0.99998879 -0.0047352044 3.4407512e-05
90.000282 0.38680902 7.0519962 0.99999279 -0.0037610717 -0.00064186315
29.430553 1.025667 -0.0012696306 7.2556933e-05 -0.0032236928 0.99999481
18.46236 0.48823255 -0.00054477877 1.5869946e-05 -0.00060382934 0.99999982
83.972404 1.8343878 0.018403241 -8.1732862e-05 -0.042171322 -0.99911046
78.928131 1.6949641 0.021805825 0.00010980182 -0.088985838 -0.99603289
69.700089 1.8226423 0.018431455 0.00014394897 -0.039593916 -0.99921584
9.4034901 1.7227712 0.021038737 -7.4853888e-05 -0.066816054 -0.99776536
8.8023405 1.6363189 0.029737717 -0.00030141466 -0.18846221 -0.9820804
80.595818 1.4311955 0.079894163 0.00018032485 -0.29321188 -0.95604753
80.596581 1.3667269 0.10199908 5.0593957e-05 -0.35156742 -0.93616259
18.20676 1.3301206 0.11225533 -6.2214189e-05 -0.35250542 -0.93580979
79.488739 1.1237303 0.19962037 0.00015463155 -0.4190858 -0.90794665
80.505035 1.081525 0.22294508 2.9015126e-05 -0.49804872 -0.86714911
18.204556 1.0451179 0.23950079 -5.192931e-05 -0.49564114 -0.86852741
56.046215 0.8683666 0.34946987 -0.00011532952 -0.58660877 -0.80987042
18.190941 0.78376359 0.40921211 -4.7260095e-05 -0.62653601 -0.77939248
81.609352 0.5773865 0.59427917 -1.8307768e-05 -0.74367785 -0.66853809
56.125816 0.6245814 0.54696685 -0.00013155425 -0.70503604 -0.70917147
87.981224 0.38053346 0.82604432 0.038660508 -0.80609661 -0.59051985
78.363564 0.40547502 0.78968221 0.00015166526 -0.77792567 -0.62835634
74.018272 0.20649981 1.1202363 -7.0036884e-05 -0.91527593 -0.40282747
56.321404 0.24368018 1.0434364 -0.00012790767 -0.89070821 -0.45457539
7.9093971 0.21771702 1.085559 -0.00022909472 -0.90304703 -0.4295415
73.188599 0.092106953 1.4086313 -9.5596522e-05 -0.96859854 -0.24862997
77.258087 0.11134326 1.3381569 0.00013016613 -0.93634999 -0.35106793
10.420156 0.097390465 1.3685338 -0.00026213951 -0.95028549 -0.31137976
20.518196 0.088855416 1.3960441 -6.9281283e-05 -0.96774113 -0.25194657
8.3418713 0.089545757 1.4144168 -0.00043653097 -0.98374647 -0.17956248
80.314125 0.028668836 1.7108409 0.00034768775 0.89301282 -0.4500311
81.2808 0.024927899 1.5765281 0.0010948103 0.99761379 -0.069032952
31.855618 0.018758174 1.3769355 -0.00014605833 0.99954629 -0.030117095
32.492584 0.013701968 1.0979093 -0.00013551801 0.99976349 -0.02174695
69.55043 -0.0015447096 1.071193 8.7777225e-05 -0.99998671 -0.0051498902
53.179985 -0.0012493837 1.0323403 -8.4643587e-05 -0.99998832 -0.0048279921
58.065186 0.00082364189 0.68295044 -2.4510011e-05 -0.99983889 -0.017949024
58.261047 1.2633944 23.001854 1.5136688e-05 -0.00075067219 0.99999976
58.098022 -0.18696517 22.999996 0.00023229729 -0.0052035963 0.99998635
70.207123 1.2219322 23.001167 8.3706625e-05 -0.0019541152 0.99999809
19.81333 0.79573512 22.981247 -0.00019931143 -0.0096402466 -0.99995351
31.902138 0.85513544 22.982355 0.00013063657 -0.010067198 -0.99994928
31.907101 0.22552775 22.986771 3.509027e-05 -0.0077153654 -0.9999702
80.596207 1.723382 22.978962 -0.0024222727 -0.96997446 0.2431948
80.596725 1.6853223 22.969109 0.00012985751 -0.18509413 0.98272079
9.4040318 1.4513677 22.920105 -0.00054284773 -0.17884433 0.98387718
9.4034996 1.3566407 22.898003 -3.316619e-05 -0.32466182 0.94583023
57.009426 1.3250477 22.88555 -0.00013612799 -0.32880497 0.94439781
8.3926449 1.0810494 22.77689 -3.3493739e-05 -0.49958971 0.86626214
10.355051 1.1243263 22.800823 -0.00012499919 -0.43925411 0.89836287
70.865921 1.0359386 22.755079 7.2029397e-05 -0.50264907 0.86449051
33.948494 0.86838007 22.650541 0.00011520171 -0.58660328 0.80987436
71.806541 0.78371567 22.590752 3.5420417e-05 -0.62692201 0.77908206
82.490944 0.82320702 22.621717 0.00032385663 -0.59845179 0.80115873
11.552168 0.61422092 22.444998 -0.00014296152 -0.67778844 0.73525697
8.2169008 0.39363039 22.194744 -8.752734e-05 -0.8023237 0.59688914
20.480476 0.40368262 22.205929 9.6251715e-05 -0.81225723 0.58329928
77.458412 0.38522202 22.18615 0.00014049851 -0.7915675 0.61108184
77.580338 0.35606968 22.140905 0.00020259565 -0.84747005 0.53084296
13.260962 0.21031173 21.889416 6.1790852e-05 -0.91479814 0.40391129
11.728504 0.23598997 21.945885 -0.00015361556 -0.8667962 0.49866253
79.383385 0.21912727 21.917675 0.00014994464 -0.8887096 0.45847046
16.811817 0.092107482 21.591372 9.5590927e-05 -0.96860045 0.24862279
12.741655 0.11134295 21.661846 -0.00012857102 -0.93673164 0.35004833
79.579849 0.097390465 21.631468 0.00026215796 -0.95028704 0.31137511
69.481812 0.088855416 21.603956 6.9283349e-05 -0.96774215 0.25194293
81.658127 0.089545757 21.585583 0.00043652413 -0.98374712 0.17955902
9.685874 0.028668836 21.289158 -0.00034765492 0.89301252 0.45003188
8.7192039 0.024927899 21.42347 -0.001094814 0.99761367 0.069034129
58.144382 0.018758174 21.62306 0.00014605864 0.99954641 0.030116951
57.507298 0.013702062 21.902086 0.00013551801 0.99976349 0.021746906
20.449566 -0.0015447096 21.928806 -8.7777014e-05 -0.99998671 0.0051499037
36.820015 -0.0012493837 21.967659 8.464358e-05 -0.99998832 0.0048280032
31.934813 0.00082364189 22.317047 2.4510513e-05 -0.99983889 0.017949075
-0.00077891839 -0.37440014 10.438902 -0.99998945 -0.0046025631 -3.0228324e-05
1.721624e-05 0.047508087 15.256176 -0.9999941 -0.0033828416 0.00059937662
0.0210394 1.723382 19.354015 -0.25721386 -0.96634591 -0.0040868958
0.064853489 1.4909531 17.466982 -0.97631621 -0.21634845 -6.7952615e-06
0.087087475 1.3972391 3.1141648 -0.95141774 -0.30788511 -0.0033305502
0.072729431 1.4473658 5.5995049 -0.98250014 -0.18626161 0.00035471306
1.4196806 0.081040286 15.235616 -0.2252699 -0.97429633 -0.0003218943
1.7865053 0.023251783 3.5410905 -0.99835825 0.054884553 0.016382612
-0.4118464 0.018718746 15.164219 -0.0051405611 0.99998677 -4.8828271e-05
-1.1018064 0.014978364 17.358305 -0.0062264535 0.99997568 0.0031449262
0.41097915 -0.00090805779 5.9444199 -0.0012119063 -0.99999905 -0.00059922884
-2.7002234 -0.00049190444 11.465902 -0.0025285196 -0.99999672 -0.00025066204
-2.5105016 0.00080924516 8.6132174 -0.0041696951 -0.99999005 -0.0015849706
90.004356 5.0814672 3.4021041 0.99999982 -0.0003406959 -0.00050417404
90.004105 33.147079 4.5611691 1 0.00020718788 -2.8434762e-05
90.00425 12.301821 16.998396 1 -0.00019655797 3.1035568e-05
90.002525 5.201036 18.454922 0.99999994 -0.00034820431 9.8085031e-05
90.005112 17.905136 17.557293 1 -4.4948109e-05 0.00012697089
90.004387 33.625008 9.4392557 0.99999994 0.00024151971 -4.2080064e-05
90.004356 39.901806 19.600607 0.9999997 0.00030487112 0.00063082646
18.000355 45.002808 19.232506 -8.0980926e-06 0.99999958 0.00093117729
12.407994 45.003426 17.140991 -4.0556486e-05 1 6.679404e-05
9.7038822 45.003532 19.522211 9.9337158e-06 0.99999923 0.0012584036
66.034309 45.003952 18.818592 6.6223838e-05 1 0.00019395517
55.67009 45.00478 17.074612 -4.1568978e-06 1 0.00025758249
52.927376 45.004196 19.263931 -2.3242777e-05 0.99999994 0.00033538754
21.108698 45.004513 8.5966997 -0.00011146028 1 1.8615963e-05
34.273239 45.005299 8.1561146 -2.8211924e-05 1 -0.00018707762
37.072617 45.004196 3.7360682 1.9919873e-05 0.99999994 -0.00033927389
23.943548 45.003956 4.2002501 -6.933308e-05 1 -0.00018406704
68.899376 45.004513 14.402455 0.00010995472 1 -1.9379613e-05
77.59201 45.003426 5.8590097 4.0671537e-05 1 -6.6700028e-05
80.29612 45.003532 3.4777896 -9.8889095e-06 0.99999923 -0.0012582624
71.999641 45.002808 3.7674966 8.3148088e-06 0.99999958 -0.00093156868
-0.0046949722 9.6741056 18.414032 -0.99999994 -5.8754358e-05 0.00035338846
-0.0043696607 5.0959077 19.598705 -0.99999982 -0.00033956248 0.0004884153
-0.0047738939 29.458359 21.04435 -0.9999994 2.8653121e-05 0.0010977128
-0.0025338505 5.253859 4.5219121 -1 -0.00032191497 -0.0001010571
-0.0047738934 15.541643 1.9556524 -0.9999994 -2.9030352e-05 -0.0011002814
-0.0025338524 39.746136 18.478088 -1 0.00032191497 0.00010105702
-0.0040516262 41.149544 3.2402277 -0.99999958 0.00068552507 -0.00062637054
-0.0046949717 35.325897 4.5859671 -0.99999994 9.3217634e-05 -0.00033649543
18.000355 -0.0028044544 3.7674966 -8.0777727e-06 -0.99999958 -0.00093138922
12.407994 -0.0034261087 5.8590097 -4.0584058e-05 -1 -6.645931e-05
9.7038822 -0.0035289032 3.4777896 9.8383389e-06 -0.99999923 -0.0012594353
66.087479 -0.0039519696 4.1902919 6.913369e-05 -1 -0.00018521657
55.767326 -0.0052924617 8.1519184 2.8451113e-05 -1 -0.00018105192
52.927376 -0.0041968031 3.7360682 -2.0544014e-05 -0.99999994 -0.0003385419
21.571228 -0.0045575108 14.522132 -0.00010516791 -1 1.8901736e-05
6.4506736 -0.002559776 17.18059 -0.00016751757 -1 3.1608775e-05
34.232677 -0.0052924622 14.84808 -2.8451124e-05 -1 0.00018105186
37.072617 -0.0041968031 19.263931 2.0001602e-05 -0.99999994 0.00033909417
23.912508 -0.0039519682 18.809711 -6.913369e-05 -1 0.00018521644
83.549324 -0.0025597767 5.8194098 0.00016751741 -1 -3.1608986e-05
68.42878 -0.0045575099 8.4778652 0.00010516786 -1 -1.8901846e-05
77.59201 -0.0034261087 17.140991 4.0584098e-05 -1 6.6459113e-05
80.29612 -0.0035289032 19.522211 -9.8381506e-06 -0.99999923 0.0012594372
71.999641 -0.0028044544 19.232506 8.3083687e-06 -0.99999958 0.00093179452
80.070091 9.6515169 23.004223 0.00012540902 -5.7666835e-05 1
70.639145 6.9657454 23.003988 -4.0031151e-05 -0.00017988018 1
81.423111 5.6905994 23.004593 0.00016442931 -0.00014009883 1
81.386688 32.740959 23.004257 -4.9588712e-06 0.00020926465 1
70.268051 27.594112 23.005087 1.3305369e-05 8.4394451e-05 1
80.212181 26.294224 23.005072 3.2958556e-05 6.266433e-06 1
30.391006 11.411341 23.004454 -1.442846e-05 -0.00020751187 1
19.680407 6.3081779 23.00296 -3.4517991e-05 -0.00025193341 1
22.999517 2.9287539 23.002071 1.9409597e-06 -0.00036421922 1
19.731953 17.405891 23.005087 -1.3305366e-05 -8.4394393e-05 1
9.787817 18.70578 23.005072 -3.2958575e-05 -6.2663662e-06 1
8.6133108 12.259039 23.004257 4.9588607e-06 -0.00020926459 1
70.319595 38.691826 23.00296 3.4392775e-05 0.00025220451 1
66.976036 42.074848 23.002068 -1.9781453e-06 0.00036413068 1
59.608994 33.588661 23.004454 1.4379292e-05 0.0002076637 1
19.360855 38.034252 23.003988 4.0031136e-05 0.00017988017 1
8.5768852 39.309399 23.004593 -0.00016442932 0.00014009856 1
9.9299068 35.348484 23.004223 -0.00012540905 5.7666726e-05 1
68.515625 -2.1640625 0 0 0 -1
21.484371 -2.164062 0 0 0 -1
0.13296703 11.925098 0.010550415 -0.0053367801 0.00015179228 0.99998569
-0.87571973 17.482407 0.0034859229 -0.0024223407 0.00052188145 0.99999696
-2.7097616 17.614313 0.0012778516 -0.0018160164 0.00014740111 0.99999833
-4.0315981 16.66362 -0.0011482065 -0.0014453433 1.9936559e-05 0.99999899
-2.3756845 11.265755 7.8883022e-05 -0.0018413125 -0.00036971879 0.99999827
1.5087001 33.724075 0.002381461 -0.0041971398 9.3098919e-05 0.99999118
2.1933711 34.077778 0.006985472 -0.12120403 -0.0010225029 0.99262708
2.0768418 39.676071 0.0046204641 -0.044726934 -0.00015229045 0.99899924
1.7130381 39.983212 0.021175982 -0.084586851 3.7425905e-06 -0.99641609
2.2197502 32.396519 0.011194417 -0.37649724 -0.00055687263 -0.92641759
1.7051508 34.5802 0.020527784 -0.079860002 0.00047496162 -0.99680597
1.8668647 10.012087 0.026991881 -0.041861009 0.0001007632 -0.99912339
1.6573031 16.358353 0.033815816 -0.092255674 -0.00028637733 -0.99573529
1.8074517 17.107559 0.026325356 -0.043459587 -0.00075337826 -0.99905491
1.3886788 39.043686 0.09099213 -0.29910734 0.00031561879 -0.95421946
0.048524238 16.466324 1.5662856 -0.83244234 -0.004884609 -0.55409008
0.063438728 16.466324 1.5041639 -0.98085022 -0.00080198923 -0.19476199
0.056021135 28.553543 1.5350095 -0.97726017 0.00024143365 -0.2120434
0.041142493 28.734177 1.5971341 -0.44766143 0.0084551666 -0.89416313
0.018571384 39.046677 1.6468408 0.9914723 0.00089053233 -0.13031462
0.030515596 40.369965 1.6953112 0.4264935 0.0021395409 -0.90448809
0.02693009 34.224419 1.6499844 0.86331564 0.0052483506 -0.50463706
0.016515628 9.6475334 1.345656 0.99959838 -0.00049866777 -0.028335419
0.014677373 16.017492 1.3707583 0.99964672 -8.3410814e-05 -0.026578985
0.0031058548 14.019767 0.56088746 0.99796724 -0.00053250621 -0.063728653
0.011131658 12.367805 1.0887809 0.99981743 -0.00033809 -0.019102341
-0.0033209752 33.102932 2.0529408 -0.99999279 0.0002778839 -0.0037979626
0.0047304672 37.399582 1.4219295 -0.99984801 0.0018637294 -0.017334774
0.011547753 35.833092 1.0682347 0.11301152 0.058573894 -0.99186569
0.0060168956 29.250711 0.84235775 -0.98562449 0.0057825833 -0.16885211
0.0039291522 30.51646 0.93843257 -0.99860549 0.0021917333 -0.052747786
89.86705 33.074902 0.010550415 0.0053367801 -0.00015178518 0.99998569
90.875717 27.517563 0.0034859206 0.0024223526 -0.00052188494 0.99999696
92.709763 27.385685 0.0012778516 0.0018160206 -0.00014740055 0.99999833
94.031601 28.33638 -0.0011482065 0.0014453408 -1.9936107e-05 0.99999899
92.375679 33.734241 7.8883022e-05 0.0018413209 0.00036972098 0.99999827
88.491302 11.275925 0.002381461 0.0041971542 -9.3094997e-05 0.99999118
87.806633 10.922222 0.006985472 0.12125093 0.0010230724 0.99262142
87.923172 5.3239326 0.0046204641 0.044727299 0.00015232194 0.99899924
88.286957 5.0169597 0.021175915 0.084576331 -3.6939482e-06 -0.99641705
87.780258 12.60348 0.011194417 0.37656167 0.0005584865 -0.92639142
88.294846 10.420275 0.020527661 0.079850569 -0.00047497312 -0.99680668
88.133148 34.987911 0.026991881 0.04185934 -0.00010078144 -0.99912357
88.342705 28.641645 0.033815816 0.090615697 0.00025824047 -0.99588585
88.192551 27.892439 0.026325356 0.0434593 0.00075335137 -0.99905491
88.463211 28.712097 0.045838274 0.2209242 3.5732723e-05 -0.97529101
88.448547 17.059324 0.047161743 0.23731837 -4.5416764e-05 -0.97143191
88.61132 5.9573965 0.090990335 0.30775434 -0.00030130483 -0.95146579
88.627686 38.974949 0.096160688 0.31331021 0.00040653738 -0.9496507
88.791412 26.20393 0.15894265 0.38850611 5.3841136e-06 -0.92144608
88.905502 5.7650266 0.21200821 0.45015424 -0.00046937534 -0.89295071
88.912689 38.224331 0.21523415 0.45944116 0.00039911576 -0.88820809
89.05423 30.890495 0.29737037 0.52564085 9.8940749e-05 -0.85070658
89.019051 18.183296 0.27446583 0.51403165 1.3762186e-05 -0.85777128
89.180351 5.0700307 0.38036537 0.58713228 -0.00054173055 -0.80949086
89.326012 26.796103 0.49745905 0.65734518 -5.0165843e-05 -0.75358963
89.502937 17.425503 0.67434078 0.75481313 -3.2433309e-05 -0.65593988
89.618118 5.4851303 0.81770945 0.80661732 -0.00048531528 -0.59107381
89.783218 5.4854746 1.0855139 0.88341588 -0.00049952761 -0.46858951
89.78196 39.126522 1.0815865 0.88663459 0.00053769059 -0.46247032
89.867043 28.65024 1.272193 0.9285419 5.0563324e-07 -0.3712275
89.918365 40.100311 1.4227413 0.97226411 0.0011316849 -0.23388278
89.911148 37.951233 1.3904281 0.95519048 0.00027892581 -0.29599157
89.951492 28.533676 1.5662856 0.8324551 0.0048845238 -0.55407089
89.936569 28.533676 1.5041639 0.97529119 0.00054182555 -0.22092262
89.943985 16.446457 1.5350095 0.97727454 -0.00024247903 -0.21197754
89.95887 16.265821 1.5971341 0.44760847 -0.0084550502 -0.89418966
89.98143 5.9533224 1.6468408 -0.99146944 -0.00089202728 -0.13033663
89.969498 4.6300368 1.6953112 -0.42637771 -0.0021637883 -0.90454262
89.973083 10.775581 1.6499844 -0.8633666 -0.0052475403 -0.5045498
89.983482 35.352463 1.345656 -0.99959832 0.00049805682 -0.028334944
89.985321 28.98251 1.3707583 -0.9996472 8.5838619e-05 -0.026560327
89.996872 31.019308 0.56201851 -0.99398535 0.0011366346 -0.10950671
89.988853 32.62645 1.0898708 -0.99981779 0.00033526923 -0.019086124
89.998894 36.713566 0.7695893 -0.98827946 0.01197073 -0.15218526
90.003319 11.897068 2.0529408 0.99998939 -0.00027911481 -0.004593634
89.995262 7.6004224 1.4219295 0.99983102 -0.0018782177 -0.018286778
89.988449 9.1669073 1.0682347 -0.11310606 -0.058583576 -0.99185431
89.99398 15.749287 0.84235775 0.98593533 -0.0057225432 -0.16702925
89.996063 14.483541 0.93843257 0.9986093 -0.0021897056 -0.052675094
-1.5325949 35.833092 22.988453 -0.044158161 0.008460233 -0.99898875
-2.7562747 29.250711 22.993984 -0.98576671 0.16751261 -0.014264642
-2.4475536 30.51646 22.996069 -0.04141761 0.0072661624 0.99911547
-1.3225079 31.854025 22.999773 -0.0024891628 0.00076533743 0.9999966
2.2328727 33.102932 23.003323 -0.00090694579 0.00029642519 0.99999952
-0.27924204 37.399582 22.99527 -0.005383546 0.0024956211 0.99998236
-4.1162038 13.980694 22.99688 -0.018628035 -0.00087792572 -0.99982613
-2.6717997 13.485857 22.992485 -0.0032081536 -0.00026170257 -0.99999481
-2.2788069 7.4258966 22.995472 -0.0053631249 -0.0021858877 -0.99998325
0.020705581 9.6475334 22.983484 -0.0050462596 -0.00031374296 -0.99998719
-1.169031 14.944229 22.988419 -0.0031522484 -4.9416863e-05 -0.99999499
0.094880067 16.017492 22.985321 -0.0045947377 0.00018614545 -0.99998945
1.4505523 39.046677 22.981428 -0.011938977 0.00014876382 -0.99992871
1.8916008 40.369965 22.969486 -0.4380154 -0.017913738 -0.89878905
1.6499851 34.224419 22.973072 -0.031410839 0.0016257404 -0.99950522
1.6004399 28.553543 22.943979 -0.1587636 0.00048507468 0.98731649
1.6625648 28.734177 22.958858 -0.99659002 0.015751844 -0.080994651
1.6317163 16.466324 22.951477 -0.59510779 -0.016649645 -0.80347335
1.5695944 16.466324 22.93656 -0.13379323 -0.0025211885 0.99100602
1.4063851 4.8996897 22.918367 -0.26139623 -0.0014411317 0.96523052
1.3963032 11.286386 22.917414 -0.31631455 0.00027523961 0.94865435
0.37662548 39.088982 22.175465 -0.81143892 0.00045162792 0.58443701
0.27749574 26.220089 22.024097 -0.85648948 5.9598419e-06 0.51616442
0.15050176 32.192986 21.767647 -0.92775536 0.00015033157 0.37318891
0.14993685 13.65323 21.765862 -0.92221379 -0.00012246212 0.38668036
0.092199735 4.2063394 21.613043 -0.96098411 -0.0011395121 0.27660137
0.087229431 39.801311 21.603222 -0.95493776 0.00062593241 0.29680553
0.048524238 28.533676 21.433712 -0.83244187 0.0048845876 0.55409068
0.063438728 28.533676 21.495836 -0.98086041 0.00080224156 0.19471088
0.041142493 16.265821 21.402864 -0.45350513 -0.0085424772 0.8912127
0.018571384 5.9533224 21.353157 0.99147207 -0.00089054368 0.13031679
0.030515596 4.6300368 21.304688 0.42649215 -0.0021395879 0.90448874
0.02693009 10.775581 21.350016 0.86332601 -0.005248189 0.5046193
0.016515628 35.352463 21.654343 0.99959832 0.00049866142 0.028335201
0.014677373 28.98251 21.629242 0.99964672 8.3408442e-05 0.02657886
0.0031058493 30.980261 22.439112 0.99796712 0.00053249963 0.063729003
0.01113162 32.63221 21.911219 0.99981743 0.00033809003 0.019102359
-0.0033209752 11.897068 20.947058 -0.99999207 -0.00023950243 0.0039585689
0.0047304672 7.6004224 21.578072 -0.99983144 -0.0018787265 0.018266164
0.011547753 9.1669073 21.931765 0.11301456 -0.058573801 0.99186528
0.0060168956 15.749287 22.15764 -0.98562407 -0.0057826326 0.16885462
0.0039291522 14.483541 22.061567 -0.99860537 -0.0021917538 0.052748587
91.532593 9.1669073 22.988453 0.044157837 -0.0084601901 -0.99898875
92.756271 15.749287 22.993984 0.98581153 -0.16724256 -0.014334603
92.447556 14.483541 22.996069 0.041417565 -0.0072661727 0.99911547
91.32251 13.145976 22.999773 0.0024891605 -0.00076533871 0.9999966
87.767128 11.897068 23.003323 0.00090694707 -0.00029642586 0.99999952
90.279236 7.6004224 22.99527 0.0053835525 -0.0024956169 0.99998236
94.116203 31.019308 22.99688 0.018544504 0.000884176 -0.99982768
92.671799 31.514143 22.992485 0.0032119951 0.00031740492 -0.99999475
92.278809 37.5741 22.995472 0.005363137 0.0021858965 -0.99998325
89.979301 35.352463 22.983484 0.0050462838 0.00031375387 -0.99998719
91.169037 30.055771 22.988419 0.0031847621 4.4320455e-05 -0.99999493
89.905136 28.98251 22.985321 0.0045947242 -0.00018614159 -0.99998945
88.549454 5.9533224 22.981428 0.011939001 -0.0001487652 -0.99992871
88.108406 4.6300368 22.969486 0.43802187 0.017913913 -0.89878583
88.350021 10.775581 22.973072 0.031410608 -0.0016257411 -0.99950522
88.399567 16.446457 22.943979 0.15876268 -0.00048509927 0.98731667
88.33744 16.265821 22.958858 0.99659014 -0.015752174 -0.080993325
88.368294 28.533676 22.951477 0.59514165 0.016650263 -0.80344832
88.430405 28.533676 22.93656 0.13380629 0.0025215161 0.99100429
88.591774 40.082741 22.918507 0.31559318 0.0011482487 0.94889385
88.603699 33.713615 22.917414 0.31757677 -0.00011576369 0.94823265
88.654297 5.053968 22.891953 0.4770042 -0.0014246401 0.87889987
88.661613 10.814705 22.890778 0.42044148 0.00013863083 0.90731961
88.764992 12.802966 22.850601 0.38216898 -0.00010475535 0.92409247
89.061844 29.021095 22.698881 0.53728521 0.00015471864 0.84340066
89.326088 18.194408 22.50248 0.65663975 2.4831772e-05 0.75420439
89.276978 27.586803 22.544508 0.6325106 -2.8831249e-05 0.77455169
89.628418 40.56311 22.167849 0.81677079 0.00074197893 0.57696182
89.783203 39.513477 21.914522 0.88350195 0.00051454589 0.46842727
89.784966 2.02367 21.904106 0.89564145 -0.054966934 0.44136721
89.844589 13.889048 21.780487 0.918648 -0.00018993716 0.39507696
89.826538 29.639894 21.825266 0.90930396 0.00037245805 0.4161323
89.843376 40.463432 21.774063 0.9229663 0.0010909445 0.38487929
89.908073 40.677128 21.612455 0.96187162 0.00086643355 0.27349991
89.918365 4.8996897 21.577259 0.97173595 -0.0010957019 0.23606771
89.951492 16.466324 21.433712 0.83245462 -0.0048845033 0.55407166
89.936569 16.466324 21.495836 0.98055369 -0.00075602403 0.19624959
89.943985 28.553543 21.464991 0.97728199 0.00024267337 0.21194288
89.95887 28.734177 21.402864 0.44756815 0.0084553277 0.89420986
89.98143 39.046677 21.353157 -0.9914701 0.00089185807 0.13033111
89.969498 40.369965 21.304688 -0.4263812 0.0021634228 0.90454096
89.973083 34.224419 21.350016 -0.86337799 0.0052473661 0.50453049
89.983482 9.6475334 21.654343 -0.99959832 -0.00049791479 0.028336449
89.985321 16.017492 21.629242 -0.9996472 -8.3327235e-05 0.026561549
89.996872 13.980694 22.437981 -0.9939788 -0.0011440534 0.10956635
89.988853 12.376153 21.910036 -0.99981833 -0.00033880718 0.019058803
89.998894 8.2854366 22.230286 -0.98828018 -0.011970438 0.15218113
90.003326 33.102932 20.947058 0.99999028 0.00032555393 0.0044141174
89.995262 37.399582 21.578072 0.99984765 0.0018633831 0.017354695
89.988449 35.833092 21.931765 -0.11310551 0.058583595 0.99185437
89.99398 29.250711 22.15764 0.9859286 0.0057238094 0.16706902
89.996063 30.51646 22.061567 0.99860877 0.0021900092 0.052685369
71.216026 44.451096 23.000669 9.5830212e-05 0.0017431844 0.99999839
58.092869 45.456268 22.999744 5.3100095e-05 0.0066323201 0.99997801
57.929867 44.161133 23.001217 2.0289857e-05 0.00061399833 0.99999976
59.096992 45.377945 22.990803 0.00015456286 0.0099750394 -0.99995023
59.09697 45.842697 22.995714 0.014303033 0.99989772 0.00014009507
32.749218 43.479904 22.985041 -0.00040957454 0.014051203 -0.99990124
31.912804 43.175808 22.97893 -0.0055812816 0.99942887 -0.033327803
19.821697 43.297482 22.985298 -0.00014090075 0.09372279 -0.99559832
19.813086 44.408459 22.996269 -0.00080706202 0.0094468752 -0.999955
31.901968 44.973846 22.993008 -0.00041476422 0.005910113 -0.99998242
31.738903 44.210739 22.989079 -0.00040629756 0.0054312209 -0.99998516
78.588821 43.552177 22.97887 0.00045390677 0.031472456 -0.99950451
82.094437 43.258656 22.962326 -0.002136457 0.54331958 -0.83952326
68.676071 43.35688 22.969555 0.00093831687 0.10492482 -0.99447972
56.242443 43.448116 22.943058 0.00057318003 0.19719684 0.98036379
58.76078 43.393875 22.956505 0.0071299439 0.99941218 -0.033532847
70.344696 43.388557 22.942661 0.00083554926 0.13125594 0.99134809
33.755962 43.435997 22.953089 0.00020819598 0.16020863 0.98708308
19.653717 43.455803 22.952627 -0.00014448688 0.21253873 0.97715265
9.2635689 43.618488 22.906155 -0.00026385658 0.30792263 0.95141143
82.095322 43.844109 22.812817 0.00033163594 0.37667984 0.9263435
59.018757 43.70966 22.867027 0.0001348323 0.349255 0.93702775
56.743793 43.635345 22.895815 1.7749016e-05 0.35758439 0.93388087
68.835396 43.689445 22.875578 -0.00012710519 0.3753745 0.92687315
34.587456 43.709244 22.8734 7.9998419e-05 0.34630698 0.93812126
9.3544903 43.904514 22.788448 -0.00025003837 0.4352133 0.90032727
78.93985 44.146088 22.642244 0.00016128331 0.54276711 0.83988327
45.313351 43.904812 22.782858 1.6189635e-05 0.46217951 0.88678646
34.433277 43.991871 22.739895 5.7804406e-05 0.49157849 0.87083322
9.3231926 44.173695 22.624245 -0.00024755442 0.58940929 0.80783451
20.241587 44.151546 22.639799 3.4563262e-05 0.57183689 0.82036734
81.629242 44.350201 22.473318 0.00024933432 0.64109176 0.76746416
78.957291 44.388905 22.442415 0.00017975236 0.67137671 0.74111617
10.203828 44.412045 22.421688 -0.00018485911 0.71917713 0.69482672
68.509781 44.544533 22.267384 0.00040469301 0.71855646 0.69546854
57.75695 44.472885 22.347223 0.00023925945 0.72561949 0.68809611
64.809036 44.428886 22.396767 -3.559628e-05 0.74122864 0.67125261
35.944424 44.513287 22.309937 -3.4976263e-05 0.75706565 0.65333885
68.51059 44.723511 22.009884 0.0004056881 0.81658214 0.57722908
57.758408 44.665127 22.099854 0.00019079821 0.82561189 0.56423849
32.237858 44.684277 22.079912 -4.8378341e-05 0.84409255 0.53619736
11.091408 44.781712 21.915798 -0.00015594051 0.87987459 0.47520596
78.964325 44.892056 21.65365 0.00019635345 0.9289605 0.37017897
57.760048 44.816368 21.82539 0.00023931282 0.90237403 0.43095365
68.590149 44.795361 21.874477 -6.5939013e-05 0.91290909 0.40816301
24.728043 44.811268 21.850653 -3.7151567e-05 0.9167639 0.39942944
8.0550022 44.875534 21.688822 -0.00034492061 0.91753817 0.39764759
82.364105 44.960724 21.36095 -0.00059278344 0.98432094 0.17638595
68.944962 44.958008 21.32733 -0.00034360521 0.95212662 0.3057037
58.055763 44.922932 21.520405 -0.00036852615 0.98230493 0.18728855
57.614864 44.904381 21.604483 -7.1507304e-05 0.96588397 0.25897506
32.275967 44.934921 21.488956 -0.00015207718 0.97775602 0.20974548
31.89777 44.952377 21.416149 -0.0026607392 0.72681808 0.68682492
10.29249 44.979042 21.353823 -0.0011515396 -0.94597763 0.32422999
7.4624929 44.960136 21.331459 -0.0015520676 0.16103175 0.98694795
20.391796 44.968277 21.356983 -0.0030786123 -0.54986727 0.83524638
73.489326 44.981178 21.639629 0.00063885032 -0.99892551 0.046339218
61.2061 44.986038 21.859228 0.00013141283 -0.99972916 0.023276029
58.457458 44.980713 21.629364 6.8259811e-05 -0.99964172 0.026766203
62.888603 44.995899 22.410397 0.00065472769 -0.99694943 0.078047857
63.767334 44.990997 22.143658 0.00026195729 -0.99980438 0.019778689
76.658501 44.994717 22.010008 0.0018368366 -0.99921423 0.039592963
25.305241 44.997757 21.770039 -0.00034724313 0.99995464 0.0095181037
22.68457 45.001297 20.946678 -0.00015367645 0.99999195 0.0039973725
13.671658 44.993195 21.578697 -0.00086407061 0.99987251 0.015946157
16.998661 44.987038 21.926453 -0.02824091 -0.16258515 0.98629028
30.814264 44.992538 22.147812 -0.015411744 -0.013186099 0.9997943
28.133125 44.994354 22.056271 -0.00090121647 0.99899632 0.044783268
-0.99142766 45.000477 5.7021389 -0.0009798141 0.99999946 -0.00042364112
-3.0560787 44.999157 8.6016989 -0.0039029934 0.99999225 -0.00048629858
-3.6998439 44.993923 8.6330376 -0.048036423 -0.99882615 -0.0062301601
-2.2923026 44.993015 5.2692175 -0.0085220747 -0.99994713 -0.005751743
1.1828771 44.982563 14.891759 -0.0055230618 -0.99998319 0.0017557086
1.6246359 44.982265 17.064634 -0.0174991 -0.99984658 0.00069189235
0.70017141 44.991482 18.356413 -0.008365267 -0.99996001 0.0031655603
1.1936684 44.976105 3.8560143 -0.01132462 -0.99993253 -0.0025975222
1.9079089 44.966202 3.411217 -0.99777377 -0.027793333 0.060621556
1.6477815 44.965759 6.0817699 -0.044005197 -0.99902147 -0.0044246591
1.6338294 44.947521 8.6769361 -0.99895269 -0.0067834998 -0.045248598
1.4869816 44.931515 17.44944 -0.22634846 0.97404629 0.00049963972
1.4076159 44.915298 3.3049078 -0.29477793 0.95556462 -0.001479218
0.58965498 44.423435 3.455482 -0.70877779 0.70543081 -0.0012352143
0.29172254 44.045654 11.477507 -0.85781896 0.51395196 -8.529253e-05
0.21281615 43.906403 19.887775 -0.88750541 0.46078718 0.0030554687
0.15130144 43.774029 12.802621 -0.92537761 0.37904671 -0.00018807617
0.074590385 43.547924 14.178123 -0.96427715 0.26489547 -0.00025784512
0.048745278 43.414001 14.307676 -0.71710098 0.69676185 0.017004814
0.032033395 43.232563 19.578867 0.020184116 0.9997254 -0.011902303
0.0030771717 45.557529 8.5078516 0.99862021 0.051573075 -0.0098889861
0.015020253 43.487236 8.593504 0.99989039 0.014708253 -0.0016788997
0.0049093347 45.814198 14.17069 0.99846333 0.055352673 0.0026520095
89.994675 45.805363 9.0801172 -0.99835557 0.057261445 -0.0026745582
89.985031 43.479904 14.198051 -0.99988866 0.014828538 0.0017004962
89.978928 43.175808 14.380165 0.95556527 0.29470426 0.0066639548
89.997818 44.903328 16.421677 -0.0010149347 0.95162576 0.30725765
89.995857 45.627037 13.890542 -0.99822915 0.058630738 0.01005299
89.967972 43.232563 3.4211333 -0.019380214 0.99973631 0.012315589
89.968117 43.361626 6.0883331 -0.99039328 0.13814747 -0.0060483771
89.950211 43.412277 8.7423429 0.098940983 0.994748 -0.026212536
89.96151 43.408089 16.839138 0.99131393 0.1315165 8.8369534e-06
89.94751 43.470024 11.491766 0.93646187 0.35076922 0.00048667955
89.896988 43.646019 18.117172 0.94971263 0.31312254 0.00043621036
89.853584 43.758766 10.266326 0.92865944 0.37093335 0.00018427508
89.819221 43.836662 16.015381 0.90430427 0.42688814 0.00054153032
88.63356 44.899452 3.4689565 0.3112984 0.95031202 -0.00055818667
88.767517 44.847511 12.480827 0.39176375 0.92006582 -9.2986331e-05
88.513023 44.931519 5.5509109 0.22207554 0.97502929 -0.00054909679
88.447006 44.948566 8.9239511 0.20595132 0.97856206 0.0006536736
88.364647 44.946487 14.216529 0.99911475 -0.010037485 0.040853251
88.092094 44.966202 19.588783 0.99818361 -0.027192552 -0.053760007
88.352226 44.965759 16.918228 0.04394364 -0.99902427 0.0043954519
89.299469 44.991478 4.6431065 0.008366161 -0.99995995 -0.0031662912
88.816345 44.982563 8.1054735 0.0055238809 -0.99998319 -0.001755517
88.375366 44.982265 5.9353647 0.017499655 -0.99984658 -0.0006915956
93.64209 44.994247 13.05831 0.053685389 -0.99854469 0.0051378598
92.292305 44.993015 17.730783 0.0087934192 -0.9999463 0.0054877168
90.99144 45.000477 17.297861 0.00097982341 0.99999946 0.00042363879
93.056084 44.999157 14.398301 0.0047173831 0.99998868 0.00059259415
16.778915 43.86198 -0.0011955071 -0.00031217147 0.0082590804 0.99996585
31.553902 43.834484 -0.00012505648 1.9920251e-05 0.0054333499 0.99998522
31.580551 44.452652 -0.0021677448 -1.4586359e-05 0.0015383159 0.99999881
29.028324 43.058136 0.0099190995 -0.0021185563 0.99992931 0.011697406
30.876051 43.28492 0.0039362884 0.00011701677 0.015337851 0.9998824
57.585815 43.176994 0.014924141 0.0061111241 0.4959923 -0.86830539
56.576321 43.256798 0.021768413 4.6690955e-05 0.089754798 -0.99596387
68.666512 43.138245 0.015400877 4.0769803e-05 0.049800597 -0.99875921
82.615799 42.850254 0.0016015619 0.0050431336 0.58095318 -0.81392133
80.561577 43.379532 -0.001207382 0.00013727881 0.0037019688 0.99999309
70.203461 43.000862 0.0050630653 0.0068753571 0.50451308 0.86337668
8.0755939 43.400017 0.037594747 -0.00037988558 0.21442525 -0.9767403
21.493044 43.377205 0.030367497 -3.4653323e-05 0.18962687 -0.98185629
19.608524 43.518536 0.06413915 -7.6638353e-05 0.26302007 -0.96479034
69.68998 43.413242 0.038997214 6.3338407e-06 0.18573783 -0.98259932
80.863365 43.61533 0.092573516 0.00025278944 0.31769273 -0.94819367
8.0604334 43.811436 0.17385052 -0.00030737184 0.3757695 -0.92671305
30.847713 43.71405 0.13456996 -0.00011094321 0.35051063 -0.93655872
27.043663 43.64006 0.10564071 4.6254601e-05 0.33599237 -0.94186473
57.755669 43.728867 0.13462172 1.8924755e-05 0.36341459 -0.93162751
80.398407 43.905525 0.2120222 0.00019038758 0.4567835 -0.88957793
11.056581 44.146107 0.35776699 -0.00017435013 0.54988283 -0.83524179
44.689171 43.904816 0.2171451 -1.8933026e-05 0.46196124 -0.88690001
57.757 44.041718 0.29018509 3.765399e-06 0.52464348 -0.85132211
80.674309 44.173695 0.37575305 0.00022804691 0.59437627 -0.80418706
69.656067 44.14352 0.35459733 5.2514366e-05 0.54638124 -0.83753663
8.6739273 44.354008 0.5299527 -0.00020986154 0.64068824 -0.76780111
11.04203 44.388893 0.55757755 -0.00017187718 0.67226577 -0.74030977
67.428947 44.238464 0.42724958 7.0740214e-05 0.63751447 -0.77043837
80.113075 44.412083 0.57843852 0.00023770709 0.70958775 -0.70461702
69.878258 44.394035 0.56112021 -4.1376712e-05 0.69341421 -0.72053921
35.116043 44.457245 0.63508421 -0.00011764783 0.73163241 -0.6816994
55.563759 44.478386 0.65038049 -5.101211e-05 0.73656315 -0.67636889
11.028326 44.766529 1.0580863 -0.00019372719 0.86056864 -0.50933444
27.227705 44.675812 0.91728914 -0.00013913579 0.83011639 -0.55759013
64.814713 44.670807 0.89970994 7.3143208e-05 0.84524584 -0.53437769
11.033649 44.892056 1.3463589 -0.00019820749 0.92888588 -0.37036604
32.239956 44.816368 1.1746105 -0.00023922342 0.90238112 -0.43093878
21.417284 44.795391 1.125596 6.5228123e-05 0.91306186 -0.40782109
64.817146 44.822102 1.1750659 4.049412e-05 0.91799259 -0.39659765
81.945 44.875534 1.31118 0.00034610715 0.91750461 -0.39772496
7.6358895 44.960724 1.6390488 0.00059281132 0.98432094 -0.17638578
21.054567 44.958008 1.6726768 0.00034354959 0.95212883 -0.3056969
31.944237 44.922932 1.4795938 0.000368165 0.98226291 -0.18750873
32.385139 44.904381 1.3955195 7.8948899e-05 0.965482 -0.26046979
57.724041 44.934921 1.5110425 0.00015206079 0.97775513 -0.20974937
58.102234 44.952377 1.5838485 0.0026609458 0.72677922 -0.68686593
79.707512 44.979042 1.6461728 0.001151538 -0.94598454 -0.32420957
82.537506 44.960136 1.668539 0.0015521764 0.16101314 -0.98695105
69.6082 44.968277 1.6430151 0.0030786488 -0.54988539 -0.83523446
16.510668 44.981178 1.3603654 -0.00063885044 -0.99892557 -0.046339013
28.793898 44.986038 1.1407695 -0.00013141248 -0.9997291 -0.023276176
31.542542 44.980713 1.3706329 -6.8257199e-05 -0.99964172 -0.026766218
27.111395 44.995899 0.58960122 -0.00065473316 -0.99694943 -0.078047931
26.232668 44.990997 0.85633934 -0.00026195793 -0.99980438 -0.019778719
13.341497 44.994717 0.98999059 -0.001836859 -0.99921423 -0.039593358
64.694763 44.997757 1.2299623 0.00034724281 0.99995464 -0.0095180413
67.31543 45.001297 2.0533221 0.00015384934 0.99999195 -0.0039991075
76.328354 44.993195 1.4213026 0.00086407142 0.99987251 -0.015946249
73.001343 44.987038 1.0735476 0.028241104 -0.16260025 -0.98628777
59.185738 44.992538 0.85218561 0.015410872 -0.013187905 -0.99979424
61.866879 44.994354 0.94372702 0.00090123096 0.99899626 -0.044783898
90.99144 -0.00047461613 5.7021389 0.0010017441 -0.99999946 -0.00046022239
93.056084 0.00084212935 8.6016989 0.0043267594 -0.99999052 -0.00030865314
93.782074 0.0061754906 8.8586845 0.016218118 0.9998672 -0.0016072685
92.80719 0.003561774 5.3064213 0.023568781 -0.99965119 -0.011919482
88.814758 0.017441822 14.895789 0.0058701904 0.99998105 0.0018331468
88.375366 0.017739717 17.064634 0.016192885 0.99986863 0.00070899341
89.299187 0.0085224686 18.35676 0.0075056576 0.99996871 0.002485336
88.806343 0.023894805 3.8560143 0.011323288 0.99993253 -0.0025967702
88.092094 0.033794351 3.411217 0.99777329 0.027807755 0.0606235
88.352226 0.034244787 6.0817699 0.044098858 0.9990173 -0.0044390298
